-11.602234001205662 10.155553407196471 27.773950969314505
6.3993855404805311 -2.3811150110986703 26.978658294316247
-1.3862456763607627 3.248729024489867 34.955216079703511
-11.919723950251427 7.5576295012287753 24.785039506736446
9.2800234842400489 -10.20420725475136 24.277447887686019
5.5492916853352048 -2.7703454891886476 33.411254800829916
-6.8645019425406346 -8.2165587108969103 28.233157820263965
0.12123958520618094 -16.023428639181674 27.053777833865986
-8.5854846097655653 3.5645058501733682 24.637806594753112
-0.51126402233518442 4.9833678213208534 34.802214242766858
9.4811783481895269 6.2909365557530208 24.323450288071914
-6.0239807992879291 11.966253633776128 24.98310307072958
6.1210085078383347 0.058942437669665254 33.014875472987384
-3.2991178004965573 4.0835652320681106 35.625303491866291
4.9511757487711199 -1.6221427091538849 32.711409135116917
-7.0429765708339271 -3.1657230611204898 28.178468960538972
7.5590020627591956 0.62080439735688575 24.266164066524528
-11.050841613556001 -6.763442877082106 24.699817870448765
-0.33398586527230284 -9.4048008662358473 33.647740231457391
5.5232626766957598 6.3705274399680816 32.190814829501555
6.7626959350380069 -9.7468406638288876 25.14475543930396
5.2023477841083414 2.7424336481040088 34.618346596369307
2.386181318083699 10.888623036759107 24.708672305329909
0.95130713921502352 5.5170729299804888 34.549730642580812
9.9858440039754779 9.682823202494518 27.323866852415115
7.7486303172403819 0.70055972227652463 24.274884927959423
1.4210713388149545 -2.9417730025531839 32.997310821952887
-11.365214827601163 -4.8605889963954798 24.696242619486657
-11.135961749072123 -4.9864921705694174 24.685569070346936
-0.91757440885531072 -9.1236131640810587 33.999377767337691
-5.7233186391015485 8.0938891733736522 33.280067359792277
8.4336891884245837 -10.283600174345143 24.268195988331385
-4.2773304404200418 12.643807092472832 24.329213276598463
6.9546815664935391 3.3538766525823616 33.444528872366334
9.7058359867279425 -1.4397835146982596 24.320080082743928
6.4894906766530625 -2.2130935651903219 27.773488642626461
1.0637888432118057 -4.2715804511070834 33.39562651707454
-7.303178811196184 -1.0340574743945437 32.587079685414061
7.4504792883281601 -7.2331309410325675 24.260782199545954
6.6046577709643026 1.0153741906214808 25.706712406458379
6.5785342775629658 7.2371121703417778 25.097397186806372
-4.6971845559234051 2.6607852247539068 35.258163178101569
2.0046230516289656 -7.8363045164636533 34.261357327731496
-0.39208711797408807 0.79985822737252865 33.648497708728527
9.5401945764992675 1.0544989330519035 24.31966918216823
-9.2458494714662418 1.633802702120589 24.647025194443032
-11.649374502390252 10.611387570222178 24.328223721403724
-4.9887303354843455 -0.98571297628828658 33.389406183005825
-7.5850982538012977 -1.7736485777270075 32.616569362258637
-1.8673388576901555 10.714768037149067 24.811022154894417
5.6720993179710897 -3.6614797565014028 33.389749548289892
-10.827912770854931 -4.1200025279768102 24.667367213306047
3.3761253639598103 -15.244606566376156 27.080481407665566
-11.919361257576812 -2.4697944984963853 24.729469871776335
-11.534974785706989 -5.1170763701999755 24.706165349890767
-1.2044057012023337 6.1891628780102437 33.927098077258364
-10.861397397475784 -5.5653726267341961 24.683688942036206
-6.26874738786218 -14.896204094809384 27.467365366924774
-5.0388475068180041 0.30613157856531675 34.056411865720051
-1.4729111750939052 12.127953542311973 24.775375631518678
0.33793969993754319 -1.6796823266395939 32.304164950387957
2.0097402111940146 -10.982672101227918 32.381507186573643
6.760825578275881 6.8799419419897516 30.630032522964424
9.3153172437201928 10.623494483451243 24.707375562566728
-9.9999853469530873 -5.2434998994740702 24.656253686001094
0.91855391395588937 8.1182865219861409 32.323432297425995
-11.999560123271371 -5.7353245719277535 24.738986207933749
6.6923307863742583 3.2319310428476045 24.281524532510186
-8.3221998053898414 5.998317555085749 24.645629035426246
-11.77692908240004 5.9708148736869129 24.785119401237363
-3.1162046708471416 -6.5153174591361411 35.084132929309838
2.3632082383271094 -10.044466258124219 32.818694188458956
-5.4070294793699176 -13.958319683244568 27.391721799321292
-7.4753914677007716 2.36311739133789 24.529946195832043
-2.8294094459980386 -4.1316980177614608 34.566214799455665
4.4439319426595558 -1.5306997965043754 33.411163340999074
1.3281766310469982 9.7180241940981062 24.625418616367405
4.3693238514020729 -10.078678998901697 32.624750150663679
-7.6254881605511633 -2.227675419627102 33.237113825258795
-4.0443900893508715 11.84229270628914 24.917770704322656
-11.122392607271252 -10.289827517756819 24.696572935539784
-5.5662358847462352 -16.220499057313013 27.440925111335602
6.6561830877220833 -2.9211446723606498 25.738742113459196
1.3403700560840079 10.641561907683789 24.711602919525088
-6.4472914443468063 8.0185627395994814 33.588300869993446
3.3971597443791257 8.4137900339093967 25.85415525313628
-1.2234306042056466 8.9459666741263977 31.621272910930724
6.3173362046674999 -15.781995054263589 27.144766901549872
-11.618441294683318 7.9507787203915301 24.760588086356908
-5.475692607701955 -5.8688872846431988 34.814070118814428
0.88057986332541305 -11.588690152551024 26.380253291471487
9.5635564261463735 7.1102769260227614 24.342313535049446
-8.9051731283582036 1.5593631722541861 24.63074326605782
-3.2632232746027761 9.5416457399776871 27.324980390489596
-7.1993691761541001 -11.88782833319407 31.035756785763418
0.18650638809588171 9.8933087473839265 27.136790182368024
-3.7318056736129983 11.914376755532084 24.913241149261893
-8.081984530183151 1.8771596766714227 24.599644208847543
-1.1114875915145439 -11.609961724307295 27.764539630203615
3.6609889711949983 11.369909548689622 24.708432244789531
-3.3294846601605625 9.7654060354411278 27.331835907862146
-12.013871697884142 -5.0808460281351371 24.723299478780895
-10.065483395725773 -6.5849992299980835 24.667577517214799
-7.6888345592190985 3.9935258233510091 34.565519864903706
-7.016418214702818 -11.041617797482244 26.026839490728001
-12.308662364624102 10.446452882553414 27.182172308694437
5.3136340951135956 5.8336908116435646 33.229599303859374
9.4219597705771925 -3.8231504445439901 24.303459869158576
-0.96670474211800583 10.0504710453105 27.188339506817258
6.0808009101614253 5.8822703193549772 32.740389202185447
-6.7319749942233305 -6.5870473270202368 33.944726964587744
6.5423316278902535 4.6483346188933261 25.834881400648484
3.2567282644094471 11.602645146150383 24.710851284246427
10.031786253810166 -4.3006542188769812 24.302792944525475
8.6788862413867882 -8.5351659791444376 24.269357350237733
-2.3198124132839633 -12.366929430978223 30.652868211075855
0.073341713742795703 8.2229380397812939 25.971388875564333
-2.4685190295120027 12.212985768421261 24.839336859474844
7.5663036121977143 -1.3602966766664104 24.268645973292109
0.96502527739485344 -9.5208379468534421 33.54394830821856
-11.496521442025335 -5.6352184040704607 24.714029515809415
0.37809304083561218 -9.2146162830288727 33.666779225600351
-11.126100471711652 -5.181163505927656 24.685846509100589
-1.2102210202524566 -0.17870050000844578 33.033165400647839
-10.584383560428313 7.8128476233588344 24.717106597614894
2.3227513554159294 8.4550213854946303 31.121222095002267
-3.5063853855813552 -8.3758874962794039 34.698852961825153
3.6990380565481895 -2.2543666348894651 33.619846899947248
-5.2063519648059389 8.1957766476975156 32.988861870797173
-0.2958001003885885 8.4117794237895254 25.861510266356447
-5.1903006846050754 5.5145293591773825 35.178988420092452
-2.4331626056115963 -2.7374725777222193 34.002751523807035
9.6939060033048516 -0.1672326806762871 24.316798818487232
-1.3857431929846742 -8.4609393556015817 34.483192298699208
8.5725879408067893 -1.4545113407081023 24.29039548433472
7.4290635586427491 -3.1179707492875819 31.730870999340908
-12.144850394036292 -1.153445666448687 24.736818605201442
-8.6968279636962258 3.3712991023131682 24.638949272502717
-0.77969406010425146 -9.8492208765320282 33.474807717552807
3.9439869227659217 -11.727890823196917 25.80847520191508
-5.7400754688645339 -7.6120109160628369 34.020686193663771
3.8303358904829712 1.4928208185691132 34.539680973742144
-9.6854410529402468 9.5962575308724354 25.008868436053408
-6.870254534235011 -11.576807716521429 26.612364103284595
3.5123156908292921 8.2250857466662488 30.738753372917827
9.7708602338496 3.1210546353075408 24.320256184240289
-11.51871150756768 -0.91218155272509316 24.719003403341819
2.8787306285388001 -15.482582485196946 27.068353146225959
1.4855940700711512 -2.6087810625172985 32.868238930790163
2.7748771020056524 6.7472294519372031 32.713954779246841
2.1645547615703382 9.6925429754645549 24.687411251204143
-10.142360765980634 -5.0524129901052239 24.661831248068516
3.1734002610565271 -11.566411127416174 26.146192273741878
-12.14848261331661 4.295828258749772 24.78083484785795
-6.2332409362750711 11.833128334341955 24.98976118175117
-1.1283808763465055 9.6888123114102847 24.681331655791126
5.4938373547527393 -6.7320191398088278 33.802431708912373
-9.196645313273546 -10.107883603336616 24.633879792865216
-10.454743881679974 11.679343656254511 25.014241722542568
2.2181604419283953 11.048095212046626 24.710406283803241
9.264953261590529 2.0132710934697617 24.315050374163032
-2.0062513058841378 11.773873606342722 24.799720772386316
-7.1827343957015781 0.24158221343504901 26.020403299361167
-4.6467400604973719 9.6669616855169789 27.404815558471718
-2.6923965266385341 4.8442270364148374 34.720899514247066
-10.016013761995062 12.044164556189854 25.10154734460513
6.1405846356256744 7.8683619856124913 27.139362195869968
0.38039094504410192 2.8383320894798376 34.654195755075207
9.8129769643841342 -15.149114406969304 27.252171141702092
-11.468793639573569 -5.5650425316152212 24.709473471882884
7.715861563231921 -11.062673068918777 24.260505032297637
-7.9209240291551533 -11.053985263050913 24.579397436776357
-12.006865012029369 -2.4677317676769257 24.730913581048647
-7.4474291217450679 -2.3816634506105725 24.540564576847554
2.9834637533051391 -3.2143389646113318 33.63988232275441
8.3765071674692617 1.6471529010302117 24.286940563046329
0.80452246291147334 2.2573785899560068 34.23276977083804
6.0085265726499903 -11.531383250212915 31.056754290283227
-6.6640675911391423 -15.071723953704451 27.50185809964076
-7.1738745253791851 -3.5317270369521085 25.987190161354022
6.9767809070112072 1.4588615505589695 24.197909968733949
1.186511359448188 -7.6269041013746985 34.259672758830092
0.18203894131424173 -11.581458247866008 32.194644597909111
0.16168896915996411 1.5181091932018584 33.999503443539773
-6.9840874387449574 -4.3816203893017853 34.018522568130827
5.0041505570587459 -11.236249228366635 31.70009080431802
6.7382797471366196 -3.2288407198120912 25.373431872897019
2.0576877795691777 4.4120823517779639 34.759178848630533
-9.2481807490331036 -10.248012748650339 24.634243455900265
-6.3610844534548745 -13.793771594877917 27.467213682302432
-4.0801024424994363 -13.587459735059221 27.274466975763804
0.064315832562735528 8.19330285672965 32.637245131252364
-7.111632482749668 6.7938445440594366 27.557075052983723
-3.1248450833138222 -15.741371873110186 27.222523138079541
6.531249173754472 -7.4706340568860856 32.978913525394745
-6.472337492292743 -6.5859848891304376 34.116520542629495
-6.96246046519774 -11.028479343978216 26.95561733606197
3.1924720784892879 9.7614930202928907 24.22600372959424
6.7297944528738762 -6.5748858360859064 25.708041751270954
5.9669335030709476 1.1973032202942193 33.784674799221747
3.6302182365572957 10.030419597938639 27.169008047818778
-8.051243318246069 -4.9768536566796664 24.565178947781522
-6.7202778957362241 8.3535666027222053 26.04449421792285
-5.1489592270377447 -9.2495479185999869 33.264719391252129
-9.9592453086983426 5.5960998585324866 24.716074553273867
-7.2774675541371199 3.7598811383519712 25.424544680275844
-0.33811053620325965 -13.563269143562643 27.09794883239698
1.5524588570862132 10.220551097170336 27.116666158007185
-9.2562027267564755 -5.1837276364872249 24.625305828898505
-2.1043497447077772 -0.23460954924854488 33.540660282858695
7.1379973657194897 -8.4850629127766375 24.210241561033943
-9.4538593895360048 -10.464250420685248 24.642075406215195
-5.1430867954059742 -6.4033043670135283 34.851363699800849
7.9830069563601436 -2.7558578062785575 24.277813566561196
8.8356208207191447 -13.291421690604096 27.224105960776555
-4.2444318587392491 0.66070280650888347 34.349514174485201
-4.9366870041527919 -7.4561194131201072 34.363602069760518
-11.921775212483617 0.01272680515026718 24.737559109278877
-8.1717905789396319 -1.0472417201902655 24.592277120343851
-0.3455668745761234 7.2332128560189339 33.200155095515413
5.6532853417832962 -16.18753495323363 27.128974566299576
7.0636007810512869 3.7812476943384792 24.225740414611298
-9.4246076604147504 -14.634072570682875 27.006436684901761
5.6710847204162009 -4.4878375287582628 33.156075771580689
-6.7301123065328099 8.4950584798778994 26.044563315093438
-10.713156193609352 -5.9833382628468934 24.689936423438997
-10.49634426379056 10.530460559629143 24.489571232334871
-0.78597861913501987 12.612680453268583 24.761839736773428
3.8649560248710531 11.945149249210385 23.195752456683781
8.9826758696314837 9.7303896716386191 24.723917672621386
9.9313166619347655 -8.7790207670424731 24.275359207500998
-10.67411719783588 -13.693778779207273 27.733203680664307
-1.1792881387242486 8.7600907917455562 26.006994095198792
-0.22767149475960005 8.8273474336921165 32.256959736019517
-8.4542793777178051 -13.498049761644836 27.575210532589985
-11.782268581210486 3.4227330443395623 24.768015498073765
-9.3780590461279338 -5.3273907297058232 24.633803288911739
1.8859365044936209 7.6730393131478039 32.147541796971701
1.7472653040136819 -15.036672404471599 27.048304163530627
-8.1917453774499336 -9.207576116462123 24.578356076024079
6.8638682808431799 -11.068741284507022 24.260809592193667
-3.4332525445416002 -11.622095469469652 27.413525965054347
-12.100723001154588 -7.7903767882060011 24.735404653970065
9.7544085298675345 0.67129966904185701 24.32000763497112
3.5050300215803878 6.4260916209715502 32.994465460631666
6.2100750755345784 8.4432660413671563 25.76303708806309
7.777043358429883 3.8299730064644928 24.290770430661137
-9.7521174382787823 -2.5816887147844674 24.641970023762621
-1.170964641787404 11.411176646454667 24.779050805156729
-8.4703246665454124 -15.247304645772084 27.579189686626528
-7.3126531262158636 2.9360896621870451 25.16839325959084
9.4587356263494939 1.1134713920260888 24.318032382283583
5.8547157880729035 -13.579062443304023 27.137571321436784
-12.129501611728573 6.5759917019199312 24.787577639385745
-0.81390135440029487 0.44733803627451818 33.401686332701274
-5.6258551862938448 -8.7930948348303097 33.395354183043985
0.21502998646829993 11.445582552393681 24.730333300223993
-7.1517121415800977 -4.8480184722165598 25.992684128426692
4.5510619773915391 -11.981136312758895 25.756961519753396
-4.6156856657572449 -5.8561068093782982 35.205412150137676
-12.06403222818672 4.6580869059001273 24.779927678028482
3.3215682970141018 8.1213701145047175 30.945268134814999
-4.0154610800938437 9.5201696657072823 27.371316900734719
-7.0537786555144022 -3.5494231544466102 26.30610561909268
7.7388023839747273 -4.2816934407122718 24.262143098005033
-3.7719187717051654 -1.8211152389498226 34.34607924059555
-1.5418207947199354 -1.4380067196336939 33.194263062971572
-2.5151039434983722 -4.6060161085396238 34.578174522635948
3.1116670391304604 -7.5451745004600648 33.622434070815821
-9.3682887218558495 11.960358004009043 25.066972114621034
-3.580175658553443 3.7331253809507809 35.67643314347886
4.9352262608386095 9.6821396152735328 27.195957502170906
-7.1949863458805527 -2.9435686608917155 25.95173619620282
-7.1883579524766921 -10.480911371239918 25.612194882527451
5.1502336703297598 -6.0289247702461441 34.137219935157667
0.37639573904485896 4.0544458149758889 35.185481966330101
-1.6747566176170188 -1.3356756142549946 33.233563417438432
-0.84246869233534205 -14.019254289742804 27.097761050398084
-5.9778711126178372 7.0975083358105726 32.935191853476162
-7.232450069577153 5.8190657334233444 33.265311519173977
6.6250713791699205 6.3975124899847282 28.328987771875177
6.3206230558105183 4.0589024046652931 34.099355351114625
-1.9775566735447641 -2.7271015742549771 33.804365166993193
-4.1171590217259126 -1.2686699767979086 34.180488831401199
5.2824128042290512 -7.6724486731139372 33.441647701700496
8.8620394030452765 -3.8822173407296612 24.291343056942594
2.8350680524585101 -2.2111439275821962 33.176202423474059
7.0101073813397541 -2.6821020550226882 31.065999901072161
-7.2226007045722165 0.25621970751199902 25.95115819104165
-9.1972022967645302 -4.9646984253387014 24.622465235502279
-1.3698940195364291 -11.768611644677993 31.900677696807904
-9.0493728584855173 5.4419334986016903 24.674077904062756
-0.43551917422331649 -1.3415903513119223 32.647489342324583
7.2402744267754811 -8.3592577897985745 24.229534210650446
-12.13978773685605 1.0369183653502088 24.753039127580745
-4.0213566822138613 -16.392147122845717 26.641489883655872
6.688084057557993 6.0069285551065255 24.302515175678661
-1.1837510536483236 9.6845171519478175 27.201377584465632
-2.3324109579499543 -13.440355044356673 27.18165785051681
-8.023375380400033 -1.2570892718675597 24.585859587910853
0.10508985420535807 4.938246201463353 34.904785015466267
-11.188347301176263 -8.7248620795456731 24.707376654946572
6.5481001495112414 6.9418527380564781 25.795990184181097
0.62417196927437713 -15.520913220121658 27.0645534863866
-11.807452652763113 6.7308129336984681 24.777875276025711
5.3511984251291587 -12.31033261811778 30.377983183843604
-2.2188200526448809 11.29679264791244 24.834619104677007
-11.924796114547524 -2.5883356107084512 24.729992067238374
8.6656357567951261 0.44571412944585209 24.294724436856907
1.8286401095425837 11.563768396673025 24.712980991288386
-6.9489342909125673 -6.6282325996608851 33.79672504837653
4.9714415781167194 -5.8199015428001175 34.23556906481322
-3.125117122795297 5.506338887063035 34.747407740233399
-3.9268930257472343 -16.050964983869193 26.623314386989236
9.9444940528923862 -1.8912430628404626 24.322929482383184
6.9377341733085665 -13.643452532004616 27.164787120018346
-2.8071450113086951 8.2778209115835057 26.01671082239724
8.9710662571718647 3.4220132881315712 24.315295874574911
-9.0601500848283507 -5.1858929930622804 24.619511780898687
-0.19332212665441201 -6.6033051282306046 34.816001936301198
2.2988029239931955 8.3933107487473393 31.201060733096678
6.2723731760282728 -16.244060643507446 27.143161777621351
-2.4691420225775347 4.6500375060091104 34.785103612190348
2.7939049213386085 5.2096350114392704 34.676454265913321
-10.172012753293245 6.386124708528202 24.722512538077304
-5.2406339221759133 -11.650974063854887 28.001529800253067
-6.7470998250970284 4.3453115426706148 35.086723217158678
6.9638682338867541 -11.780625946000018 30.341493679009947
-2.9383975562748987 10.9156897117364 24.888019384251876
6.6905092825562651 -5.0552675390970512 28.021510303823788
-0.79867601259349486 -6.5126172883580162 35.157537182909472
-11.588960607506445 -11.237316940546142 24.715838689761949
6.7090607156708675 -13.354903880464553 27.148713466184713
-2.9807665689909681 -8.8741852598681437 34.658527866409145
0.93008282510299589 7.7028817246252697 32.746145965574023
-10.193678718322271 -15.93633234265913 27.048128737778018
2.4790578736645981 10.22019471637031 27.139264207985882
-1.2902415872628064 8.0914358169303355 26.73860792749306
-5.9900624365162347 12.619824861069175 24.340940407077351
-5.8869502509319096 -9.9972760243170811 32.680306427494685
-7.5973022170455122 9.6702720028833173 24.628263274023407
-12.030984653574256 6.593297170937662 24.783703257128423
3.1465924107808307 11.590420590530579 24.713002259036138
4.8617469432002345 -14.837940931732401 27.111313666737804
-9.177601001845332 6.2827231474721961 24.683498775391897
1.7056076366646158 -4.5400192474612231 33.554508207833798
-9.0130360079561527 -8.0805926447941978 24.629085617654948
-11.461134845565139 -15.846734733601179 27.794578438949092
-9.3760936616530888 -4.8032647193447024 24.627089682197898
-8.7991018359228903 -0.54121014894409814 24.616336467876341
-1.2264510306115672 2.7861396380928687 34.760449838755797
-0.93415323260280714 -14.134614269888262 27.099214621485636
-3.8421706643050051 1.7220606290896252 34.907076526969391
-7.8199206607323672 -6.7705748058587725 33.215899889865597
5.1371658684488848 -11.746884900915846 25.778269055766867
-2.3420257599018366 7.5967320301523529 32.891104378335314
5.7257291819176563 -12.00286231845589 30.759125483222157
-11.832159786847154 -5.1958877688097722 24.721001328818566
-7.4704053054218527 12.365364447239809 24.33792054473501
-1.3694289000366557 -4.2798871085372454 33.920634715616039
-1.3499902738082659 5.8926604076805136 34.113690911994617
7.753166870148009 7.4433337808637976 24.323122527831536
-7.1556637453188987 -10.883255811345311 31.841205358284132
4.0342179644838803 8.3742879938863215 25.838674958570373
-2.150837829804578 -9.7000979304965309 33.968533974995609
6.5939253602882664 -4.2879520922348302 32.527531678235086
-10.601482450000837 1.8066518794506019 24.714824659075454
8.5729474432574424 9.7511212949579669 24.665779541801047
6.7216541738014222 -8.4341199262922277 25.714815154913751
-4.1830370736200342 -11.130768041979408 32.37854690835006
-10.19229369877899 3.6161060079336744 24.720835501847297
-8.8402981403724361 11.300858143970158 25.054845058517788
-8.6622778800346261 -0.87453044379945633 24.609776434387587
3.1284036730373845 4.2396449657427535 35.052460695928794
6.1685806654349689 9.9485324563685378 27.201935783216843
8.5144746353807381 -14.111478745779099 27.205873349471133
2.9496494168407548 4.7486308995486137 34.773378281256171
-3.6167309996124848 10.534490050284116 24.917354543801004
-6.8818042651320361 -15.780321692824808 27.516655563511307
-11.682278345419364 -6.3949207532965122 24.722654260600962
-8.1040775576480666 -3.7750243143508304 24.561174105167375
4.5036599208277694 -6.1744773334701009 34.509467059790268
3.733421858069248 8.5289257875970517 30.294705946204765
-1.1317734132822226 8.1890789230575667 32.784501797154768
-12.157731289771558 -1.6332312380760245 24.736374117264784
1.9947027566505806 8.5488087349442434 25.894201386419169
-2.9643738969704794 8.2347436087827255 31.887759687903433
9.3674314150406488 4.6837268592884822 24.329546894647937
-9.7581804394497915 5.3670536417839596 24.707367746637491
-4.8209738710362817 -15.362808176052383 27.369312288905896
-5.6435383326229429 -6.1116655291285236 34.693230608925163
-8.0847039862568941 5.406911190281094 33.29643097787045
0.12861144667308935 10.555152723925328 24.734413624023741
8.6646290618571236 -14.23895188260199 27.211775594292039
-3.0735085040352925 0.14910138566519798 34.029221023127569
-3.7615913665133252 -3.6388334925762273 34.711597480782032
-2.5126728069628226 -8.3414048528653595 34.803736902658464
-11.800088983971264 -8.5510980230207458 24.691905030710476
9.0407935569683957 -0.93421812554197237 24.306853106475735
6.8913431560517369 2.56298454454272 33.412891355961953
2.9011347549872037 -8.8885457515454256 33.695821997717893
-11.339002265769723 -9.7395511573119204 24.706650421400923
6.00311761955638 7.5690099541060043 30.287338398992361
1.965962767691841 12.508426366843823 24.725673187959924
-1.4673385929332048 -12.485986482603698 30.918127337122019
-11.577735385127983 6.727157243756964 24.773917999121931
6.4836109604317596 0.29949073942419735 33.033058162217181
6.8332106300872599 -2.3392336769854065 24.229578336168473
7.0336634279376344 -14.432016463942603 27.165454917969974
-9.7573403438779671 -8.3496292794537013 24.654878421665288
-8.1759288292289476 5.0780923580765291 24.645182595369899
-2.6002598400030776 8.3424193025495317 31.91074060622303
3.7012756559132263 -11.578720848271084 27.776100564341565
-0.09597129963991459 10.377297307604399 24.742356019339919
-3.3982677797445433 -14.247425861358877 27.263331782633806
9.7549628657952763 -3.1208176408361887 24.31674653136497
5.489812156923576 -2.5555286504096686 33.281003975968069
-3.0555915618284706 -2.6321826075547143 34.242003496640216
2.7503523678850414 7.5369115209713584 31.817545043887066
-6.7011612164383942 -0.49086795761709562 33.06359680123569
-10.531269280012721 -8.738538465309194 24.682028884507602
-6.9363224487727022 -8.3396987692908606 33.243973276931669
7.8657804563093539 12.590450262507916 23.264670531629857
-3.7678124512846378 8.4996330111015599 32.193385803869958
-4.4517466906623557 -1.9514018558639776 34.614125052623578
-7.4992516922165242 6.3462284604489705 24.587409592493241
-10.971409228022495 6.2931820924305422 24.752679970279729
-3.671831388298116 -9.0038737880292334 34.172986621058463
-0.30374581739333012 -8.8028640285153585 33.991623367624115
4.1328413521223126 9.7453163892790293 23.849527539653707
-7.0799065972682227 -3.4805821521563023 27.098841723667476
-5.4651541852091494 6.8087603415146694 32.930559335318534
5.054106485832544 0.96590129286861659 34.01382499327174
5.1374672508357504 6.6204427987128946 31.733366662549912
0.28925541692291762 -13.994683748245833 27.076833063393924
-0.53085517448653874 -3.908153592875987 33.462858053142213
1.6871825655845141 -3.6963219492198141 33.298745726423832
0.1898232229070097 -14.078839155927657 27.079655253126951
-1.3334999431377896 -11.887733548315518 31.802314503741488
6.6716155464632907 -7.6869347074244159 32.841420837450848
-7.1090190170568839 -9.9164019794932443 24.891109267071993
-7.5997311696946674 5.2645501896945772 24.224439781451718
-3.4791976664409443 -15.080112964575573 27.264789312173061
6.7905470188457864 -0.22432103465863906 24.211005603593094
4.3859808545606729 4.2005150400649658 35.329087580194098
9.6080141554863268 1.7176391515130691 24.321382604494289
-11.309970356130444 -5.2019812558714973 24.693294458293877
-5.2487591440502275 -9.8880899927076751 32.912303509493228
4.3765117017071855 9.6987306716238315 24.675583749352807
7.029520797548221 0.67861446704770201 32.875949961806668
-9.8853737525916454 -4.7072156741528053 24.64872419117069
-7.2488307537170993 -5.322897258932521 25.170077782139014
-11.904093011750584 -3.1879283882451679 24.729182469772148
-3.0147511765863593 11.874899919798196 24.869157944546547
-11.6842195997225 3.9421626413818336 24.764566584214389
0.50571151316129193 1.6514895563438572 34.024980220946141
-11.716039531217445 -2.1561405232512296 24.721706415762302
9.2130703918374657 0.73264391150418096 24.30794639412002
7.8282604717054305 -8.0167997772788269 24.267172371984664
-0.72320229472034914 11.971405541244145 24.756682832196937
1.1407278184059997 9.8196145066997662 27.110323513507876
1.0936092818030996 -5.4625703057160075 33.606576212901672
7.9052764467815608 -4.3130728753571992 24.266576542925268
6.8747656899291725 3.2577764591186309 23.771824338520418
-0.071704790695730894 -11.863947433514033 25.822003364793382
-7.6270230464275546 -9.835565785532328 24.516977846016822
-1.3641647783356321 -12.10395784802146 25.951630354630275
-3.2975639439459674 -7.5899997640438963 35.041636330869075
8.3716133045487506 -13.838363067050794 27.197891496468458
7.8126262554207901 -11.129661338132786 24.26233194431623
6.8865604415717465 -8.2238448514182032 32.36221078859456
-9.4296391720990052 5.8189739245569108 24.685846738670563
-10.141941097738552 -5.143406760872467 24.662138950962127
9.8302415530182277 -0.69448968844755354 24.319223123059516
1.003217924324064 8.0029342348036927 32.35668234321281
7.7427724946903007 -3.4534714432552938 24.266288681998674
-9.7381465445391306 -16.000464335724825 26.769604229116297
-11.747022166556631 -9.2887053015735379 24.727019801747055
-2.7716187678227491 -1.3325059127019256 33.728750673863878
-11.967877847166791 -14.001772137802996 27.812649781322843
-7.208152578105798 6.0891036774332985 26.045590116018651
4.2436953794958745 -9.4874187729100594 32.981552468110564
-4.921393256732455 7.6212337505769137 32.735477400444125
-2.1430892193943034 -12.317652028963613 25.94947198519975
-10.245696413074601 -4.8063273634544208 24.660957835405934
-7.4952085017279648 0.82870978875601353 33.629720445877126
2.0573842649462617 11.908133758100655 24.719711914943883
7.8902876881289368 -2.064797722648863 24.277672193596892
-7.3415171165790412 6.4314683118410096 25.282778486305705
-4.0765225043011286 7.5429095921074083 32.337534060974846
5.0203232146980996 -2.9235178592734781 33.746538469423172
-6.2776927845059074 -1.2421287798005283 32.852446068258303
5.884823086358943 -1.5617880373844755 32.127659210957873
6.7661869529783765 6.2270364765645541 31.234208939511557
-12.052550201843067 6.7037770564308552 24.783642120014129
5.6566117560505234 -5.9574978375847429 33.807150993078153
-9.7147648080225633 4.8306053159236635 24.702520186043518
-4.7508384191509618 -14.888407879068749 27.357698432379344
-3.2895112220671359 7.4961543219981275 32.455978248558594
7.6664374757742779 -15.650019182249276 27.178380897359496
6.2172584202817491 8.1649486329917735 26.772228489015365
3.0323377777834897 12.461629560588413 23.869012309923832
6.324975127507785 -9.516125586773148 31.916953343731095
-1.1204012179440404 -4.7585420940671144 33.924745741840205
-2.5919842925633683 -11.145170663193609 32.056045751622172
6.2782414154745281 7.781857385757494 27.065142852198285
6.6914477702148574 -6.5966970609541145 26.573259294211123
-10.992519424849004 11.203385692012585 24.402502124136717
1.3256693704662468 12.03878241792386 24.709290657949445
-1.9767104114516143 -6.037283986068636 35.243194850075682
-12.035927270228244 -11.590912625336895 24.733428350402669
-5.2858803507478962 -4.367151009071538 34.956098956353394
0.3992322377554996 8.3162845817765199 32.562760365519146
5.1780879616609621 -11.946851337276158 31.091985137749717
-3.1549767634147439 10.773515681501518 24.895528602733215
1.8727056974335927 7.9516897858569306 31.868618612320901
-0.57099187441139332 -14.945803684365998 27.097388913335177
7.3551461514717804 -2.3795566068576255 24.262558183934441
-1.3800559800463303 8.7827293857120061 31.800422282064616
7.0316493213123827 -11.667145600580495 30.354820256856385
-12.204853895947387 3.0955755304622055 24.780765016744645
-2.6088290028454297 -6.1229071239945085 35.016584146795672
-11.672823107907726 6.7812226540936944 24.775289489496597
-6.7797373273256021 -11.541320085819805 27.056120555581288
-1.4379633003355665 -9.5786958491016581 33.832570552549214
-11.072416203102501 -0.83511408885815597 24.696014134601047
-6.8529806426475366 -10.678812453950741 32.000635628754047
-7.4106435706757443 3.5630851441193183 24.594708546772388
-9.6992087348027471 -5.7773122182656831 24.658687066380281
10.029854685180798 -10.642650854536008 24.281490865798524
8.6821016984584194 2.8262113662265262 24.300159131440061
-6.6840953953888187 8.5796092905952914 33.963844795750305
-7.3060308233628612 4.0627252263689329 24.828075700818616
9.9708909131414583 11.740272812992044 24.154202705623646
-4.2830240157198576 9.649873697688351 24.848478704079309
4.5013865415197394 -15.333026192988138 27.105749491269904
1.893288366825737 -8.9267581922472505 33.933800598028618
-4.567666627183379 9.1586799231839233 32.753207327731531
6.3522596675230139 7.658748528710718 27.061490624672032
2.6179875520998039 -7.6409550416757819 33.516274761714826
-7.0163968219604316 -7.1034492858637019 28.257589577107726
-7.0397642180764839 -4.8531931194526177 28.182121377461154
-7.1746557416542212 -2.5713460651527282 26.015856477943192
5.3193257306724355 -16.009376113372916 27.117749737708536
2.2764147935181041 12.489662430595436 24.725369161760405
-6.853676111647891 -11.677600019350125 26.045214419882019
3.9837500962793384 -12.321986684829207 25.811234927043778
3.8247569386327984 -11.452683950835018 32.036220771218879
0.12947859526108649 12.207084391347133 24.732914146193245
-6.9816784007623953 -16.138370830220534 27.530357229760167
4.5224742116874141 10.484936887362526 24.70393404650471
6.4670275118777747 -5.1308625639148602 33.158639695533445
6.687939520676478 11.641199878385038 24.46219583542727
6.5130803712452243 -0.35085696161396257 27.489264625777672
-0.27680265283970285 -2.9997601268484115 33.025972478040167
-3.8341056496651196 4.8613244535298632 35.555871479238306
5.5652833821834706 7.8113918640309929 30.369401998193268
-3.9369027352129482 7.3858430731916549 32.371370917461668
-2.2601340751611052 -10.101391693048054 33.304768137784791
1.626708419508176 -3.5316921433613677 33.25561768371994
-11.833478644413265 -7.9584130801792021 24.725374438831174
-8.3788992409864438 0.04961302548013078 24.594524978505511
-3.0962692028539212 -11.875408178783397 25.965660520544326
-1.6895769302235741 -6.130446075639969 35.326242650123561
-2.4667004552598151 8.451034389742281 26.010643871209833
-9.4257899642590104 12.488843779226718 25.061109682537683
6.9114681069676411 5.3485599458197548 32.674391412013819
1.2132649372417919 4.9683858837211989 34.746710480839191
6.1671241343323997 -1.6994573721612123 31.920244513389466
2.1129971067387459 -14.535925979279373 27.058755247215053
9.7722248594271033 -13.977927995734632 27.251664753835083
0.78986767101037147 8.6501162871149422 32.021351749832135
-0.32650759586452238 8.1027737213921434 27.130671141564406
-1.050252465651957 11.329028242627183 24.772067194216714
-3.2882992768062498 11.870303093110516 24.883857256199484
-2.0650987706317689 8.6287530532202297 31.647418733720915
2.4703088124688395 -15.62167760065142 27.045180853931942
8.731720048599751 -3.8485974749736371 24.288101978955222
-7.5771665045619709 7.4089314078252189 24.501976761384736
-11.906952199946685 0.370971762252015 24.738425945441762
-2.6722360404546706 9.5030996008110016 27.284281883607655
-5.8525785636619645 -5.4111608848821984 34.676037503982528
-0.86860969130367205 1.7819077040312177 34.276246425051326
1.3774272228377484 8.4763641403097889 31.59616754146008
-4.1557191867626466 9.9174013269136942 27.379371104284488
2.0878228965139445 -13.832920781240972 27.05912153545632
6.5542258396708304 4.0420678889770567 25.788457675562888
1.7279430746283684 -15.293963909078794 27.046919805983819
1.0315291065705181 9.9266307395101201 27.114757572629603
8.1871996477532907 -1.2039440169842293 24.282534482903984
-5.4045611079237759 -11.257312271155508 32.187915159329016
-6.7693656635528505 -11.479204478371198 27.124510236572274
7.6793449264912041 -9.5960473423929589 24.257737501507396
-7.9752025116510934 -4.717812939388649 33.392595235108672
9.2629019317500063 -8.750811189671051 24.273000658330989
-8.3247362793942568 -3.4425645867146502 24.564396985649086
1.5244837975058674 2.0428557047340345 34.147350675031781
-11.833343128935081 -5.5786884663679688 24.729485885982317
-9.8091364174785109 -3.7916471220519488 24.638011078207072
9.4841916986661268 1.7353935737304482 24.320438748904046
-9.0993557788322228 10.806629903336372 25.062037804499347
2.9394672973454306 11.721101230987264 24.717277523027157
-7.3112490797829102 -7.9301585768152956 24.552039348517486
7.7242442438336871 -6.4513114139794476 24.255350731118117
2.0822528297985623 9.7121726899114762 24.658435250244782
-7.5387422446061452 0.31038051690393886 33.284252663836966
2.2611313627270775 -5.8934673386826688 33.25721787263226
6.3116202685739076 -11.890623142533125 25.732503710156934
3.0076371803929076 -6.3256506598284643 34.077282899754856
-0.40886953386157276 -7.3965054532924475 34.824130857585516
-0.18497646139098894 9.8467580230157594 27.15456709317888
-9.4384947770080601 -11.17550182811369 24.644449125356129
5.9314989243849983 11.273268770893488 24.690134659474978
5.7555215823000578 11.298933239948658 24.691712598297837
5.5802250292053746 5.784383836521263 33.178969779304609
-11.236907902349719 11.427158827179978 24.364758861098508
5.2267252801828832 12.363635860522848 24.688768398005038
1.7383588050679259 8.0505520978419991 31.831674222360764
-10.093974806591952 -5.2189303335927093 24.66014547530963
6.5573899204704205 1.2272949282429233 26.321481509227546
-11.550889311997132 12.451165318851732 25.15550420660157
-9.0898747637646569 -0.074800212875073713 24.631956612481247
5.5286826906412712 -2.2656420207600432 32.411691459387775
0.75529968223100863 3.5072826179961596 34.802464997363117
4.8364504827949331 -7.6960273664251924 33.583457394559339
6.9416371698862358 -5.4850416732852434 32.928938045891741
-0.041276722754724882 9.2841324395637734 27.146349164812772
-4.3870965695861681 8.4838178967348252 32.521497912221115
0.31954032543836486 -2.3134023742734806 32.515650480204037
-0.60661640053872035 -16.178820541574598 25.949901914942654
-1.6872308310942483 7.7143178102866559 32.965733517922693
-7.1978709452387548 -4.0461569676769882 33.841878153716991
-11.273698700150621 -8.9805774269316174 24.718770053935295
6.3621026956461249 -9.0947035167408927 32.106519500429435
-3.595517728156314 12.006637067361423 24.904291372515502
9.171844123196891 -8.0908245493284277 24.275280132260626
2.5455212454339242 -9.4904099123307439 33.247932307667902
6.8065269086137432 2.6940000949202036 24.216337230389069
-5.8389284268996464 -11.876467786401861 31.545841133087698
8.5777690638209698 3.3092697038983059 24.300327763279029
-10.727779994077808 -3.5237515682587097 24.655795706202177
-4.1441422432914106 -14.782295224735964 27.312878795106691
10.216282190021026 -13.491101860815901 27.273559143411276
9.6157586867092135 12.565710322060051 24.712472996594013
-3.6904852865241073 5.9770655578653349 34.394844752121664
-9.6823532788110054 9.7961809004323985 27.163010398912146
2.4125563404133286 -5.6547461060869306 33.41407694949941
2.7230231277123638 10.093540766765077 27.149585415764442
-9.5262377766683048 -6.4929712672746565 24.651125808691535
-1.3308127447714713 -14.171327828760834 27.106792097181007
9.4478427589042173 -0.15525718244715242 24.315455622871834
9.5295126598086988 -7.5630928162387496 24.279873982512665
-11.905551921165156 1.775174673776257 24.76349528524095
7.2386168647347713 -1.0286568030105165 31.682731558702439
4.5159937467723985 11.975313780905168 24.697648226845079
1.4719882319382995 -13.801102238839796 27.044619185401515
-3.2264273576309876 11.092690426088099 24.895997437239444
6.9016663865125292 -1.0631429368606877 24.213359282381383
6.4085188622930689 8.1166595800978616 29.455002425857217
6.7833539396168341 5.7559083448487289 24.237566132605927
-3.5450831511647949 -6.2759587308018565 35.179842991441028
-3.3035783828989866 6.9528815438699114 32.969521897481854
-3.1696737624032845 -4.4697350953580166 34.780187570662136
-2.0767532643245601 7.238000446396712 33.1823869347255
-3.3333631997862616 11.987092097389425 24.885512582706461
6.5070393515725948 2.9562971327733134 28.055422663101787
2.8264553773723784 -0.84292847853888508 33.335724551519775
5.1078176504584771 0.84425659857752189 33.925790024354143
-6.2075636466751982 10.415797440573298 24.987978689710587
6.5275813047738644 2.6348421914458151 33.664038595274995
-3.8330122485573992 10.435105190672992 24.927120685351078
-3.0230895416038348 -9.9320152322819037 33.480021908687931
9.9040193550173843 5.5152955290007881 24.337822964739605
0.13181132477675991 9.7156412567820993 24.103370841184951
2.4715149405145667 7.4830982326504776 32.015085932937055
-1.8131507849294564 8.5165639878501178 26.012466934075526
8.6557608051446913 5.2575756834200726 24.314966181867085
-8.801334091408382 9.6297984290696732 23.967514246183413
5.3238781053208442 -5.9092675201340414 34.01895410317556
0.88192634839521578 -14.529159380597946 27.061889161990184
-0.54260270259461596 0.24137517955906432 33.05156521486262
-10.145699878259173 3.3430573221813842 24.716631059497796
9.4337703000579474 2.7676526167763935 24.317389736438745
7.9966340350811294 0.48014703431366168 24.284336780368129
-4.3997726056138955 -6.153130357021495 35.136722206254916
-3.6084488262542278 -15.841599396409059 26.68853249219751
0.54073260435565929 11.490098381650649 24.720760220023944
-1.3243683720495341 -7.5183870076292916 35.006892442508551
-3.1182917130306231 -8.9368746662394631 34.596139525803778
1.5290754644651183 -9.9305056578713788 33.411491072645532
-8.1913535383104747 -14.366433038549969 27.592839836919811
7.0157300902124726 -13.768709351029305 27.1663567558926
-10.232134908031759 4.8998845427505531 24.730925481251017
7.3329534749655716 1.5856087741402027 32.990027908803704
-7.4991803211306785 6.324532639508174 24.587485471873947
2.243577703631126 -2.1719695443243636 32.968035815461477
-10.341190660076629 1.823811018397592 24.708126350702713
6.6522793437657741 7.0104386591696652 24.314598948765816
-4.5351916696017529 -10.114128705767419 32.978673629981564
-7.4443638674419903 5.5418221016270159 33.494588750691094
8.1836131727907233 -4.2078788103244014 24.276117543868477
4.1836631555991985 1.3805169544279592 34.480887233434984
-11.922510364838267 -2.3550698887320576 24.729313349676293
-7.8973929831026659 11.778021625256807 24.768649892463586
-12.038125255292966 -3.5576547718746054 24.729453658925635
7.0848831149481466 -8.7583654353643077 31.812539104461379
4.1161905162534662 8.393620295899261 25.83470759430552
5.8093055607428656 12.308294531641003 23.872191721410644
5.9871151057301617 11.474535474283053 24.685848004186099
-10.235028562458673 -10.138816880546257 24.66726986973902
-4.1020735938722224 8.0130943343931342 32.353365503224403
-10.572533419361264 -11.202752774319059 24.674616681965549
-2.6736362401686624 10.070245662895969 27.289648694694971
0.31228409180271488 8.0339008720943692 32.764686272733364
9.9249168020901717 5.3701044961335374 24.338087166077344
-2.3745117028795151 12.116035273677417 24.829065876934976
4.9166958006478554 7.8386770792225402 30.605252381807119
3.3272368047467378 5.1479194699753936 34.703497580502614
-12.124081577176455 -2.765253923277621 24.732987129744377
-7.3819880348602771 -9.7607074062357704 24.524796880012435
-2.1451928236352855 5.2168403091589441 34.474648955313199
-4.1811266363447288 -9.1776309864226118 33.567556119456029
-6.5589244154516742 -13.761867935707608 27.479232408820401
-6.3278158726866041 9.5175854973576008 34.044271914117068
-10.567485738333041 2.6094911390989393 24.721170269802791
-1.5986001667881584 4.3648897352973313 34.921711144984272
3.5641828198594139 -11.978342615615908 25.793302199643094
7.5364200869703089 -3.3172426436954363 24.263313007501722
-5.7758971547131779 -11.682647400582752 31.732643802904374
-5.0077557103573502 -2.7394956311576339 34.927586759725422
-11.844658791353854 6.7690846109026728 24.778140118133635
-4.5347917053120774 -5.9834929813665267 35.178151400853402
-10.12374919987097 -9.0703797853750689 24.668828215937246
-2.1822172093023675 11.077444477238778 24.830695466590566
-9.4071008034529839 -13.812300664577531 27.011432503153131
-10.685278726162306 11.509203793713334 24.627960576280501
6.6099294181584662 12.547063558034827 24.093145615421584
10.019541114156375 11.326455394438753 24.14893224983545
0.44413019635923623 -11.588004263567543 26.470224219587099
-3.5031722185536163 -9.5107730774787029 33.583231994245224
-5.457168132095215 12.514926597410593 24.970863678485934
-4.0794421489525652 9.8317510811378028 27.375388151664296
-0.1141909641355191 6.3243190832757703 33.907559560549537
6.4642931821102501 -11.798340653885434 25.733977591616988
-7.1101964157885673 -5.5257809812337797 26.033412044627919
-0.76499755583583473 7.9535119675798569 32.885533261637285
-2.7557693284634044 -16.475491814545606 27.213688536875949
-4.9613682761654312 8.8052990489687062 32.964183787673221
-4.1908599404469467 -10.002949408263554 33.139875039329034
0.0025166570677974216 5.8170905964742019 34.30382335294933
-11.936755851587638 -7.0154458427342661 24.726513399656302
-7.1937676018374335 7.335342834436994 26.886747569101328
-5.4253011805207842 4.2465602095128698 35.687655557925268
1.5053563258059508 7.69007748637158 32.342462365945572
4.0304472499842001 10.190098066415569 27.182721102654806
0.018423121341130944 8.089312037046577 26.234385864073403
-2.1686139324377693 -14.840099789188208 27.170123404156683
-4.5643581398963162 -15.533674456866368 27.350869595934281
5.9899792131122531 -10.324439098844302 31.732872165848178
7.4179318039584263 9.7509192176867128 24.62631323642097
9.6556531309980969 -4.3627083539150657 24.296952578887293
9.4839120487059621 -3.1006393399735259 24.31299598160685
5.5209347695561402 -5.3991564062160187 33.77502295664528
-0.95011215740944233 -16.052053069191015 26.501464558977187
-8.5910517220432556 -16.109065784393671 27.554744991925279
-4.086118403038304 -15.548108884429928 27.293979375404213
-11.526420896100461 -5.536040528843615 24.712815076347514
3.5936183013556104 7.7905348519005395 31.121420534132938
2.9364240492978309 -0.22105284351977944 33.621739394697627
-9.7405282868818546 -15.11333501796984 26.889223263415833
-7.5329238161365453 8.5085844731417382 34.080486636255387
-3.9680600698560387 -5.4250263468987638 35.285105834899348
-9.6644159175996585 7.2316741368711783 24.711743335466977
2.4789998172976069 7.9576570941641629 31.570838436814338
1.2945668365345206 7.6512512595159485 32.514914547244139
-5.3809910318995504 -11.699358725790011 26.057809547643775
-8.2475068164868475 2.4963222819889328 34.033930452781981
4.334045048943036 5.2617949854609591 34.654405690919901
-4.133355835884414 -3.8395518524749512 34.877022286254117
1.9151501640383051 9.7232921683384426 23.856625779190175
5.3766179845566473 -15.4273826609009 27.120614799294874
-8.6672856174382744 -6.8401112681460576 24.608591913260444
-2.9741496468587094 10.367448198650766 24.883584466831426
6.4665599318491331 3.8718005574775463 33.999800751680127
-4.5072719637541807 -12.233367847654664 30.394410995609373
9.8299886533696075 10.692578765493598 23.869928186011123
-11.0810318553374 2.5160666400036589 24.731628219101729
6.5998768920404896 -0.80363466566160036 25.729220322802583
1.8255448454195204 11.821456175466388 24.716424962239859
4.8732989547149934 3.8283457508317591 35.107356135659963
5.6133716183613256 7.2661292898580667 30.80488433891264
3.9804505076275034 0.071069462515367235 33.807752984737853
8.5946893129077608 6.7922147401228505 24.324593238039181
-0.95885438065727036 8.6940718798699166 26.000048032915274
-0.94637894879320095 -11.777372145100161 25.924168563622874
9.5777527674195309 -3.85979670882638 24.305061564748875
-12.000807460548113 1.3418436076073115 24.755122241512506
9.1569737190989375 3.4794547677708447 24.317951714631594
-7.8753914925903379 -13.604250238678814 27.548877402639906
1.1417148947876252 6.5493036062944432 33.935818645608158
-1.1976333902706595 -7.9209050626289237 34.756193870741171
2.1222873817222729 8.6053297673567677 30.970532559414263
-11.225596896118155 10.48517843516807 24.833015872066508
-3.4698002138928454 9.6782503896192384 24.773970159192466
5.5495866904032409 9.7623928518016729 24.52507234501925
-1.0428401213826728 -7.5594897361395992 34.941931097541648
4.6946213002321251 11.851257584046694 24.697299039360797
4.1622010036514663 -11.506876775788959 31.932756809448293
6.5569175823672179 7.6430930463136164 25.079730070468397
5.2336210800253982 4.9321002509820646 34.611481285520298
-4.8317281417888234 -5.2618427531601766 35.21297362003331
9.9256696533608615 -1.030735086119783 24.318915524953617
-3.8639665748173391 -6.8143094219300426 34.915700483304555
6.1279117528314524 0.82542353516415912 33.523736379384161
5.8677381046715462 -0.69018450120001451 32.681881417172796
-7.4049876660273517 -4.527923722383381 24.529682118026688
-5.5980145588536354 9.6082415124524481 24.884177638013842
-3.8962497166129668 5.8194282986937704 34.891152246542575
-10.004412017664983 -16.387843587640408 27.198238881242254
4.9106264099851611 9.7760469401830417 24.129953301306848
4.7724215403580814 -12.264595080809142 30.815746582972871
-8.7928195069859445 5.7286013270923748 24.661672400610957
6.8907643730099384 -12.025237779909746 30.189030152587275
-12.197683953064251 6.2901718040923988 24.796939788029331
7.7829471691386347 -0.74070664189902335 24.273503547091924
6.6688535081145304 3.8234700935634121 33.781857816973947
-8.6248149068349189 4.6614788874599338 24.64997970354872
-7.29367459459983 0.33095192847123012 25.181273666483982
